# 3D point list with one line of data per point:
#   POINT3D_ID, X, Y, Z, R, G, B, ERROR, TRACK[] as (IMAGE_ID, POINT2D_IDX)
# Number of points: 391, mean track length: 4.7731971759959659
6605 0.99197598936438758 0.91828276029692935 9.6042687602216308 127 126 125 0.1864382214468312 5 10050 7 10808 6 9886
6604 -4.9463567143171963 0.52534096713626244 10.435440451773815 47 59 81 1.6184732180898664 7 10863 6 9878 8 10306 9 10999
6603 -5.1875581166463602 0.16742168606706034 8.9249307093403143 132 146 151 1.489778864735247 5 10040 7 10796 6 9876 8 10296 9 10986
6602 -5.2905328780618168 -1.1430673886238625 9.9569114016512543 101 108 102 0.79755918831914641 7 10843 6 9862 8 10359 9 11110
6601 -2.5614358819383565 -1.4348428278555323 11.203317468816188 46 61 94 1.7065898589463071 5 10019 7 10656 6 9856 8 9824
6600 -5.2372037008540095 1.5129501075642546 9.0737260727314357 84 92 95 1.7566317323266427 7 10818 6 9825 8 10384
6599 -5.2262258992743007 0.76985240858815551 8.8234360632451505 119 115 113 1.7404374131233868 7 10720 6 9814 1 8096
6597 -4.7187638182235503 -0.084638803124528386 10.550250799184644 119 119 117 1.5792378217704173 7 10435 6 9793 8 9888 9 10559 10 10910
6596 -5.2012974720946481 -0.65757129252190905 9.0742440883649689 138 143 146 1.4748083162830039 7 10407 6 9784 8 9843 9 10520 10 10574
6595 -2.6879228850879211 -1.0840661463016534 10.975631717085285 48 63 86 1.8796121063421098 5 10021 7 10661 6 9775
6594 -1.4946818744978647 -2.1953762143240869 12.040478214860306 0 0 0 0.61948724553763457 3 10941 5 9941
6593 -3.0544229197876702 -2.4947805219098877 12.180231668936431 123 125 143 0.83733048978454383 5 9938 7 10649 6 9765
6592 -0.4318997334540986 0.83345813801592827 2.6478092604815684 63 69 65 1.384649429138588 5 9931 7 10768 6 9754
6591 -0.4318997334540986 0.83345813801592827 2.6478092604815684 63 69 65 1.384649429138588 5 9930 7 10767 6 9753
6590 -0.31698978827824353 0.76562218830363593 2.693990238389536 39 52 69 0.78952640523711193 5 9928 7 10765 6 9752
6589 -0.31698978827824353 0.76562218830363593 2.693990238389536 39 52 69 0.78952640523711193 5 9929 7 10764 6 9751
6588 -4.5145621177982358 2.1075437807645776 9.7294986810130872 68 82 101 0.66866447895971592 7 10636 6 9745 8 10088 9 10721
6587 -4.5146331696951005 2.106690012897241 9.7297720382124915 68 82 101 0.750976961999133 7 10637 6 9744 8 10089 9 10722 10 11041
6586 -5.2721703245238025 1.9415790147781704 10.050586618055767 89 99 109 0.21522537847228163 7 10628 6 9737 8 10078
6585 -0.021833722879414985 1.9297569447662151 10.739619196875372 49 52 59 0.81799652020107683 5 9905 6 9735 8 10259
6584 2.1911904711608532 1.3421515953276355 9.6676578940310396 73 62 61 0.18198736523706241 7 10587 6 9699 9 11018
6583 -0.15641631202672968 1.4799175996909686 10.804297036120483 81 90 89 0.73118001333909621 7 10583 6 9697 8 10230
6582 -0.61433764523955581 1.4647326282956605 10.756780864032732 90 99 98 0.54540304615001545 5 9861 7 10580 6 9696
6581 -0.75917489436662655 1.403686071969118 10.776314980472396 49 50 55 0.18286312774713856 7 10729 6 9690
6580 -0.75917489436662655 1.403686071969118 10.776314980472396 49 50 55 0.18286312774713856 7 10728 6 9689
6579 -0.61543734513757764 1.3145856177366892 10.784204120795216 99 104 105 0.65751025012029607 5 9843 7 10564 6 9681 8 10005
6578 -1.3366698202159042 1.1469317661452096 10.731271955009575 105 106 105 0.87906456206531092 7 10547 6 9648 8 10207 9 10871 10 11181
6577 -5.1509471400314384 1.0480056058252076 10.26519962231281 93 98 102 1.3243225045679936 7 10249 6 9646 8 9712 9 10391 10 10326 11 6919
6574 -4.3898313374667506 0.80477401252542535 10.395060636369024 102 114 117 1.9118208173157829 5 9803 6 9630 8 9699 9 10371 10 10679 11 6883
6573 -0.74995406449813107 0.60114221563596248 10.928322737961203 90 74 74 0.033490371728864439 7 10505 6 9610
6572 -4.7129690645860691 0.38582770958256729 10.476063801241114 109 106 113 1.3559378225241194 2 10372 7 10491 6 9592 8 9931 9 10585 10 10666 11 7322
6571 -5.1380490813796253 0.38601435349873481 10.406200190968026 120 123 128 0.71148160324758047 7 10494 6 9591 8 9933
6570 2.1548001336344944 0.41177529492144493 9.8538729820060151 97 80 84 0.26564853564394203 5 9769 6 9589 9 10978
6569 -0.011793662121755588 0.4370731686478887 11.051042713596788 77 67 68 0.22185343658074494 5 9758 6 9582 8 10162
6568 -4.7256735698364301 0.23286566832189773 10.523089082530401 117 118 110 0.73999290298828913 7 10219 6 9564 8 9679 9 10354
6567 0.13089946357254312 0.2082940620521703 11.119200669140893 123 124 123 0.49221441939124655 5 9727 7 10456 6 9552 8 9892
6566 -4.5641709415298415 -0.023488199865796464 10.569757142742384 97 86 90 1.7436831804915158 7 10442 6 9540 8 9902 9 10563
6565 -4.5641709415298415 -0.023488199865796464 10.569757142742384 97 86 90 1.7436831804915158 7 10441 6 9539 8 9901 9 10562
6564 -0.89883296172839344 0.043784224931092103 11.010836527756634 137 131 131 0.91063330811708509 2 10103 6 9536 1 7462
6563 -0.897365935646393 0.041441473187775218 11.013887135072265 137 131 131 1.0291028041987402 2 10102 6 9535 9 10791 10 11114 1 7463
6562 -1.3323851465928807 0.020885777185311344 10.949690856387397 118 116 110 1.1800448335696438 5 9708 6 9530 8 10141 9 10795 10 11116 11 7905
6561 -1.3373493463787403 0.019884211735189228 10.960767179819625 118 116 110 0.4185888157539448 7 10427 6 9529 8 9874 9 10794 8 10140 10 11115
6560 -5.1320196980317627 -0.11026731542153018 10.530069445134721 118 118 117 1.4894085946442968 5 9697 6 9525 8 9885 9 10556
6559 -2.4482893398837806 -0.34122830542594951 10.545424081886161 141 141 133 0.59596613281545296 7 10411 6 9512 8 9852 9 10530
6558 1.7533686116749105 -0.70482578115883454 10.160131397891135 61 91 145 1.3515906759517595 7 10393 6 9495 8 9829
6557 -5.2269996893408788 -0.96256569553481452 9.4722224218047835 47 64 86 2.4987548352319724 5 9067 7 10666 6 9494 8 10281
6556 -1.6716423052026523 -2.4890529532950727 12.264688065290249 107 103 128 1.5469458558943645 7 10374 6 9471 9 10486
6555 -0.43138336302165248 0.77590818833199182 2.6619331893126241 104 110 103 1.2155833684284041 5 9312 7 10642 6 9454
6554 -0.43138336302165248 0.77590818833199182 2.6619331893126241 104 110 103 1.2155833684284041 5 9311 7 10641 6 9453
6553 1.8313223043931088 2.1381489365714694 9.4360643135773969 78 90 103 0.32663424480003428 2 10249 6 9449
6552 -3.6962575631283636 2.1422795591059014 9.7144614670705494 69 78 105 1.1080786205953805 5 9624 7 10638 6 9447
6551 -4.4213982159083507 1.9948705535803983 9.8198726410523971 28 35 43 1.6413330892566704 7 10333 6 9440 8 9768 9 10716 10 11037
6550 -3.6773693996634211 1.8722820202873023 10.295589178571097 82 93 99 0.76109698691437766 5 9608 7 10323 6 9434 8 9762 9 10448 10 10785
6549 -3.6773693996634211 1.8722820202873023 10.295589178571097 82 93 99 0.76109698691437766 5 9609 7 10322 6 9433 8 9761 9 10447 10 10784
6548 -1.5196382568480435 1.7565080741056183 10.255150142446759 98 111 119 0.7931112964362147 7 10619 6 9427 8 10073 9 10694 10 11017
6547 -3.5612563711861203 1.6372348185460477 10.402934969951607 43 65 78 0.94244011415373785 7 10305 6 9410 8 10061
6546 1.7359954449756201 1.2471162251956078 9.6767793843225611 32 33 25 0.67611730434867445 5 9543 7 10277 6 9378 8 10012 9 10879 10 11190 11 8085
6545 -1.4489618093613965 1.0516602629504361 10.620221225542055 74 64 63 0.79801959306347869 5 9196 7 10534 6 9349
6544 2.179976310728283 0.71856383036751104 9.7744454391428146 69 64 58 1.5260529707967772 4 9191 6 9334 9 10838
6543 -3.5903789774776369 0.61099607844182813 10.618348808143807 58 69 93 0.65203850371952876 7 10231 6 9325 8 9945
6542 -0.62390059242776197 0.67089529817510452 10.936122104354899 117 120 117 1.0290776318158104 3 10439 6 9323 9 10589
6541 -4.856595191442854 0.58420192889958211 10.452313575424938 32 46 57 2.2109986462134108 5 9787 7 9937 6 9320 8 9360 9 9502
6540 -4.4371071191181191 0.40243449445787072 10.510559392030956 115 121 121 0.70792138599705334 7 10226 6 9309 8 9687
6539 1.5637499438621074 0.25789466924844617 9.8589121407466678 46 65 95 0.79666161203804031 7 10462 6 9293 8 9893 9 10792 10 11297
6538 -1.6976250655477407 0.20359797883723715 10.587378068974562 104 103 102 0.79152765120255941 7 10208 6 9290 8 9669 9 10329 10 10624 11 7251
6536 0.44476400700981755 0.14972538035266639 11.20700196844637 45 61 88 0.20092439697772765 7 10450 6 9276 8 9876
6535 0.25700011861160443 0.14308538761970399 11.180995631916213 44 63 92 0.75893328852521214 7 10449 6 9275 8 9875
6533 -1.2251156344768326 0.10720755968635007 11.036182871802614 50 69 102 0.23924603963686764 5 9438 6 9273 8 9889
6532 0.19447060683165462 -0.54885041486260233 11.320354323582357 121 122 125 1.5174385077181978 4 9412 7 10133 6 9217
6531 -4.495075271647762 -0.79327980465551051 10.850427226832501 51 63 98 0.33740670684938889 7 9845 6 9209 8 8745
6530 -6.6736274261290554 -0.87011393067174536 8.9090870395928725 132 142 151 1.1327448688725104 7 10127 6 9207 9 10295 10 10892
6529 -2.3769607550393821 -1.2547603250858865 10.81256545440597 111 108 97 0.61849763080322384 5 9360 7 10109 6 9190 8 9566
6528 -2.7507650631012148 2.1071164569816045 9.5825579390837472 56 63 91 0.84657184092354598 5 9625 7 10055 6 9128
6527 -5.1895990058786605 1.8809637138130724 8.8922925341596173 76 86 98 1.4035121209421071 7 10336 6 9106 8 9769
6526 -5.1662235983545495 1.8690862727170443 8.8518016723118738 76 86 98 1.1308508578571832 5 8958 7 10337 6 9105
6525 -2.6624300880838883 1.9154853946321435 9.956983923101193 86 101 121 2.1079064652869302 5 9274 7 9672 6 9095
6524 -5.276930245440429 1.7859464395170481 9.7099370472374762 31 53 59 1.2923315396020438 7 10030 8 10074
6523 -5.1826275607201531 1.6607824029550886 9.0526740221430533 39 52 64 1.4775301688205655 7 10316 6 9089 8 9755
6522 -6.6023071870549597 1.6036874307882605 8.4595794811797838 157 150 142 0.68997526302828482 7 10023 6 9088 8 9492 10 10422
6521 -2.6677173104807501 0.78831016756665873 10.252854531088104 117 119 121 0.32079385944895844 5 8780 6 9022 8 9371 9 10032
6520 -5.2502801057071213 0.46927586637238605 9.7254302347211983 108 118 120 0.87725647233536197 5 8053 7 10229 6 9009 8 9937 9 10595 10 11162
6519 -1.693738406878659 0.32609903607189283 10.557077721723552 101 106 93 0.4817403540769325 7 9919 6 8992 8 9332 9 10343 11 7267
6518 0.3521320904762375 0.26641454478778892 11.177507833111918 58 84 105 0.48230289608692956 7 9903 6 8980 8 9660
6517 -4.203369842624773 -0.4085040286889402 10.694996331376721 116 107 98 0.97322138397384583 5 8657 6 8936 9 9912
6516 -3.7345407532014052 -0.47701093819762541 10.680905337694819 123 124 120 0.21840221585598812 5 9100 7 9862 6 8931 8 9613
6515 -5.1535388088907794 -0.59039649649624526 9.7049140889206207 95 87 79 0.74028138859782955 7 9857 6 8929 8 9256
6514 -5.1535388088907794 -0.59039649649624526 9.7049140889206207 95 87 79 0.74028138859782955 7 9856 6 8928 8 9255
6513 1.5076520152121644 -0.47778077448330392 9.9391550517634446 138 132 116 0.97336231746840873 7 9848 6 8921 8 9585 9 10495
6512 -0.96901588068357314 -0.59559409256712526 11.18670881871622 136 141 143 0.83732807704238499 7 10131 6 8919 8 9595 9 10274 10 10870
6511 -3.5013636251095619 -0.73499958576196733 10.856602257814954 69 102 145 0.8726856751026344 7 9846 6 8914 8 9244
6510 -2.1763242643717096 -0.69696613947326946 10.766586907533123 58 91 136 0.61329409065678242 7 9843 6 8913 8 9241
6509 -0.30729051637773108 -0.7412316449908094 11.298379257973814 53 84 139 2.1769617589596004 7 9838 6 8906 8 9583 9 9851 10 10105
6508 -0.30729051637773108 -0.7412316449908094 11.298379257973814 53 84 139 2.1769617589596004 7 9837 6 8905 8 9582 9 9852 10 10106
6507 -1.0516385387502158 -0.77203814084054223 11.215664391031686 67 87 127 0.61834080052203277 7 9836 6 8901 8 9229
6506 1.5914961571599535 -0.93810701963305521 10.061777831036725 41 74 127 2.00474854699188 7 10112 6 8885 8 9823
6505 -2.0898293496283031 -1.6840292546668634 11.703952466865251 65 85 112 1.1490638931537678 4 9046 6 8880 8 9210
6504 -2.9046948488324711 -1.7355436184561803 11.784488348350592 41 54 77 1.8489546780428066 5 9354 7 8367 6 8879
6503 -5.5096204949897016 -2.2575735443042935 11.730472480367482 103 118 132 0.098860736921734624 5 9042 7 9806 6 8875
6502 -2.2637469454076653 -2.8858095325914728 12.770193233112488 215 248 253 2.1285257150532648 7 9788 6 8868 8 9556
6501 -2.5795155777624448 -2.8976228497231395 12.539128178046706 222 250 254 1.0588831422731031 7 9785 6 8867 8 9191 9 10231 10 10512
6500 -0.21535424415832294 2.4269986597954833 10.590064847112414 57 65 86 0.44624082587623387 5 9000 7 9728 6 8823
6499 -5.1689095511592127 2.0323604390192833 8.8303775557794282 61 83 106 1.4740190709530507 5 8481 6 8809
6498 -1.2086198316844909 2.2194405746986714 10.560871374814123 76 81 101 0.54489618583647681 7 9713 6 8793 9 10205
6497 -5.2843537363688702 2.1050203663000091 9.6673503136581385 31 40 55 1.620429529632182 7 10048 6 8792 8 9777 9 10720
6496 -5.2034060054822255 1.9759644423983038 9.0381676655971326 25 43 53 1.4510677248344326 7 10046 6 8790 8 9773
6495 -5.7813097814629764 1.8654664412507782 8.4889943333320996 47 56 63 0.020733786453145851 7 9695 6 8786
6494 -5.3002754688826172 2.0559442933921672 9.8183277494496544 65 78 94 0.4110308198452497 5 8433 7 9689 6 8778
6493 -5.2033462612922818 1.8896716016183637 9.3802154988852013 44 44 58 0.31278913618090903 7 9679 6 8761 8 9133 9 10186
6492 -5.2075731156352525 1.8915559704517635 9.3863482486834204 44 44 58 0.48965330888229852 7 9678 6 8760 8 9132 9 10185 10 10444 11 7467
6491 -5.1677766009903738 1.8314048242990548 9.096122933931623 42 44 56 0.2835432499495637 7 9674 6 8759 8 9508
6490 -5.2389121691268885 1.8201486871425121 9.4150961065873382 76 92 102 1.3940039300035478 7 9666 6 8753 9 10183 10 10438 11 7460
6489 -5.1477330310854983 1.7450270168596922 9.0073993206276288 73 87 96 0.31663972422387637 7 9664 6 8752 9 10180
6488 2.2253099717583389 1.667946093610809 9.6147874939818028 72 65 67 0.75552631390701863 7 10028 6 8734 9 10438
6487 -0.70068432776410483 1.719496933347715 10.706914358664966 63 60 63 0.35217205341518665 4 8895 6 8723 9 10152
6486 2.2451244808892508 1.4300290794485915 9.6593368052891275 98 109 105 0.75716816469651793 7 9620 6 8705 9 10413
6485 -6.2308005027616824 1.1806669562855943 8.5848190127575492 91 80 80 1.8751417290333312 5 8862 6 8694 8 8433 10 8234
6484 -5.2544754087472958 1.274303684780846 10.213265627414581 60 59 64 0.35415970055186768 7 9582 6 8680 8 9036 9 9612 10 9858
6483 -5.2345130810876634 1.1819087884455048 9.394621846254628 93 97 100 0.76400615858601817 7 9990 6 8679 8 9726 9 10651 10 10974 11 7996
6482 -5.2342943764957761 1.182318569856402 9.3941250427832728 93 97 100 0.81429003787304544 7 9989 6 8678 8 9725 9 10652 11 7995
6480 -0.35565698616172259 1.2134153017222833 10.821490675030036 57 67 69 1.4282562507832126 7 9565 6 8659 10 10314 11 7347
6479 -4.4999756528921262 1.1362757780379229 10.341862484496167 73 68 70 0.42003367778974904 7 9557 6 8655 8 9013 9 9583
6478 -5.2385831992840375 1.0219504828118031 9.4379556179120669 99 100 104 1.2171034642357053 7 9978 6 8652 8 9713 9 10627
6477 -4.1107290901622289 1.0677394411473404 10.400560858133597 112 116 119 0.36636733094255475 7 9551 6 8646 8 8994 9 9570 10 9816 11 6292
6476 -4.2793151624524182 1.0666594278047947 10.400463504941825 112 113 116 0.21693540188538343 7 9549 6 8645 8 8992
6475 -2.6453758076163756 1.0295529769661502 10.22330417142256 119 127 138 0.70888964585917924 7 9542 6 8639 8 9394 9 10059 10 10307 11 6893
6474 -5.1410051233854412 0.79904470347889378 9.0438394391611396 112 115 122 0.35995721966843097 5 8142 7 9531 6 8623 8 9383
6473 -1.4589826654564333 0.91894334716508508 10.679909267114486 71 65 65 2.0059824709083136 5 8791 7 9519 6 8613
6472 -5.2568708436418019 0.82272413172589931 10.310112780658327 65 62 69 0.63768968307668217 5 8782 7 9510 6 8602 8 8960 9 9531 10 9791
6471 -0.23699343651531957 0.73955401101255047 10.956739236396366 49 61 84 0.59927751950493047 5 8094 6 8587 9 10010
6470 -5.180588255771295 0.28901691869922175 9.1734948905571976 114 123 124 1.5404641755684179 5 8015 7 9469 6 8559 8 8908 9 10006 10 10257 11 7335
6469 -5.2569672592142629 0.29987149176849159 10.417325293681465 74 63 69 0.56809730407339243 7 9461 6 8552 8 8896 9 9460 10 9726 11 6218
6468 -5.2478100778996719 0.14447303025131561 10.434657728141802 73 67 72 0.38120952006235514 7 9454 6 8543 8 8878
6467 1.31788812593019 -0.056851175857625134 9.8335698968431089 96 83 89 0.38318146631618205 3 8777 6 8503 1 4556
6466 -2.736742929749604 -0.22242097960478613 10.551498591478548 119 115 115 1.1786629613848936 3 9568 7 9405 6 8494 8 8807
6465 -4.4097350981171628 -0.54949685619708877 10.752189830465502 75 94 119 1.4239208187458015 5 8646 6 8465 9 8507
6464 1.0869637563390959 -0.48766001487117194 9.8862586642487269 146 133 108 0.93983161738139798 2 8395 5 7756 7 9358 6 8460 1 5608
6463 -3.3696940493726837 -0.73590814530787962 10.91785138456035 62 87 124 0.56252523821820066 7 9357 6 8451 8 8742
6461 -0.18255642879587719 -0.96817637029719761 11.553114596237542 31 49 73 1.9887722922521913 7 9818 6 8433 8 9830
6460 -0.022878651179386145 -0.98460143663533717 11.762875538964543 37 53 78 1.4059912559465138 7 9326 6 8432 8 9220
6459 -0.022878651179386145 -0.98460143663533717 11.762875538964543 37 53 78 1.4059912559465138 7 9325 6 8431 8 9219
6458 -2.4728735214740034 -1.0562065869848469 10.742716945648693 125 131 129 1.1093969901157943 5 7689 7 8390 6 8429
6457 -2.3887449568696608 -1.091336953264004 10.752148667448827 98 96 97 0.56519326876700959 7 9322 6 8425 8 8704 9 9223
6456 -0.73294179463845133 -1.1489389106131473 11.761530715516276 34 42 67 0.5241968355884884 5 8601 7 9318 6 8422
6455 -5.2298981087285954 -1.2591033803080953 9.8375290720660864 87 117 170 1.5769279357679702 7 8384 6 8416 8 7828 9 8395 10 7709
6454 -0.39653351287142835 -1.9756973720639606 12.599672024300107 70 94 132 0.58061587510004919 7 9292 6 8408 8 8664 9 9176
6453 -1.5183332729253676 -2.1224994460284154 12.539220724413072 63 74 91 0.54069819309438338 5 7639 7 8343 6 8400
6452 -2.6154027027180007 -2.3900088454970749 12.449494006584329 221 251 253 1.4580139110090382 7 9275 6 8389 8 8655
6451 0.11461743972069582 2.3571382916568284 10.155083347475538 20 44 54 0.50085944826797524 7 9180 6 8329 8 9178 9 9772
6450 0.11164017057157416 2.3601897452500702 10.166665843939791 20 44 54 0.76551340864062312 5 8491 7 9179 6 8328 9 9773
6449 -2.4448508578096249 2.1108100295921983 8.9625831064532253 44 61 81 0.054696838511198172 7 9175 6 8325 8 9172
6448 -4.6087166945030189 2.2533721496237664 9.6035188625431438 62 75 94 0.60805620759753309 7 9170 6 8318 8 8609
6447 -5.2187283584894395 2.1541783873079843 9.1636289334122498 60 71 99 1.2161496606509012 5 7475 7 8158 6 8316 8 6540 9 7058 10 7203 11 2373
6446 -5.2974974772383279 2.2404350162247715 9.8120920440949746 65 75 102 1.7117742987753086 7 9722 9 10210 10 10468 11 7492
6445 -5.2945940821783397 2.1559967843844072 9.8189182420045746 59 75 93 0.96076415320424813 5 7452 7 9154 6 8301 8 8604
6444 -6.5533133374752826 1.7846152147941088 8.362677503572316 151 145 143 1.3415559833723769 7 9125 6 8275 8 9129
6443 -1.4902823117431878 1.9808991389690604 10.2012968664119 89 99 120 0.97543573602959899 7 9681 6 8269 8 9516 9 10457
6442 -7.6109603345023427 1.9633771718408222 9.3327378104710235 235 240 247 0.10128645159566195 5 8419 7 9120 6 8267
6441 -5.6542556699105271 1.624033255783113 8.5503542209064562 109 102 100 0.82976315962097535 7 8091 6 8244 9 9064 10 9238
6440 -2.7266291070715134 1.8040032309518796 10.06843534882757 76 76 84 1.4751493789494272 5 8928 7 9096 6 8239
6439 -5.169019509492224 1.5417518891877737 8.6387481965811528 126 129 133 0.37851299123213028 5 8385 7 9079 6 8233 8 8532 9 9047 10 9225
6438 -5.2664685761824463 1.4627630422238092 8.6604959245265416 128 126 129 0.36717337689490626 7 9057 6 8205 8 8504 9 9024
6437 -4.6461949919431333 1.6923588914237775 10.211152012372315 85 97 105 0.26918382777820082 5 8352 6 8203 1 6845
6436 -6.5173086503714766 1.430773815422411 8.4867191114180383 152 151 133 0.58415963569804041 7 9050 6 8197 8 8494
6435 -6.4203701113500316 1.3709231151114196 8.5187493847983529 105 85 86 1.2806785302440435 4 8889 6 8184 8 7518 9 9007
6434 -3.7331143523366004 1.558529809773497 10.365594244306664 98 99 111 0.30753421924930002 5 8317 7 9026 6 8172 8 8483
6433 -5.2215418462297682 1.5143722629268113 10.177518871799426 95 105 119 0.52808044368649054 4 8327 5 8305 6 8164 9 8999 10 9189
6432 -0.57693820002736163 1.5222287105628682 10.743106490915716 103 102 110 0.82579212881569519 7 9011 6 8156 8 8470
6430 -1.7921508965396353 1.4033021148098708 10.306228347729242 86 86 85 0.46982545491522482 7 9600 6 8140 8 9054
6429 -2.5837924869136564 1.3051833895857996 10.214885165807594 78 83 79 0.55645987134926855 7 8965 6 8117 8 8424 9 9613 10 9855
6428 -4.6331655899627835 1.294267943226288 10.304519878000038 58 59 63 0.26219819452897436 5 8853 6 8112 8 9037
6427 -1.4075932684047257 1.2885645493683455 10.696079232671552 95 94 92 0.27279158616603033 7 8940 6 8093 9 9596
6426 -5.2636821228383548 0.97898361084391461 8.7590988448039813 135 139 140 0.28860998188583964 7 8913 6 8065 8 8381 9 8916
6425 -5.8042946659565366 0.94984406795736531 8.7218381973355665 91 108 124 0.26882270887427684 4 8815 5 8198 7 8908 6 8059
6424 -0.30698271610448202 1.1735310564782986 10.865428809968853 109 116 109 0.7038319480502494 7 8902 6 8050 8 9008 9 9550 11 6864 10 10304
6423 -0.45166768581839079 1.166829108041036 10.843079908244809 108 115 113 0.74223413725320597 5 8190 7 9555 6 8049 8 9007
6422 -1.0586582996361984 1.1469876530651777 10.776457392244339 109 111 108 0.63708005650550426 7 8898 6 8041 8 9001 9 9557 10 9801 11 6872
6421 -5.2713642998779093 1.0092131632349854 9.8307945482420251 60 62 59 0.76330250929681187 7 9547 6 8035 8 9396
6420 -5.2744405763772075 1.0057114666367932 9.8376255397526062 60 62 59 0.77585313881354756 5 7169 7 9548 6 8034
6419 -5.1710041594286009 0.812374704931216 8.7884378511289807 136 144 144 0.084274984933478028 7 8866 6 8019 8 8332
6418 -5.1710041594286009 0.812374704931216 8.7884378511289807 136 144 144 0.084274984933478028 7 8867 6 8018 8 8333
6417 -0.82662586955609996 0.94776014117015783 10.855974156473847 70 71 66 0.16956610873676878 4 8128 6 8003 9 9519
6416 1.131186646050484 0.75899086065916532 9.6169526582741085 123 122 115 0.86823617378767115 7 9499 6 7982 9 10014 10 10255 11 7269
6415 -3.3963332626939939 0.70615152436785489 10.527626631657537 104 115 119 0.15267881065280828 4 8087 6 7966 1 5857
6414 1.4263358781724171 0.68446437487068501 9.6531498574037453 86 90 88 0.84680065779067526 4 7032 6 7964 8 8229 9 8736 10 8950
6413 -6.1361068672963297 0.49600732555262128 8.6462298415278624 70 78 91 0.67113590624893249 7 9492 6 7958 8 8934
6412 -5.241755052878891 0.57372434044001075 9.6562640238661643 83 80 78 1.3376140459249048 5 7050 7 8792 6 7956 8 8258 9 8808
6411 -2.3944972502628206 0.63094954646394497 10.396293254652294 45 62 87 0.88763030777279983 7 9489 6 7950 8 8931 9 9489
6410 -2.3949432569681539 0.62656742985643732 10.399734313948844 45 62 87 1.7062219269849068 7 9488 6 7949 8 8930 9 9488 10 9741 10 10267
6409 -4.7491116238724986 0.60044801044993645 10.412237842626832 108 112 111 1.0600752937239097 5 7042 6 7945 8 7248 9 7832 10 8083
6408 -0.53509727901638515 0.63001877155500197 10.96089710466954 51 68 85 0.64441930461095864 7 8765 6 7934 8 8919
6407 -5.1769424090242158 0.44582415399530184 9.2903863222539442 94 104 113 0.24564937783645943 5 8052 7 9483 6 7929
6406 -2.9792025036426644 0.52199001250513322 10.325089366577693 129 137 147 0.52167879261423855 5 8749 7 8759 6 7925
6405 -5.2583925015329713 0.40075767061423673 9.8022655175995581 115 122 115 0.85084206104961613 7 9474 6 7913 8 8912 9 10011 10 10266 11 7339
6404 -6.04237952276124 0.29139780261099069 8.7972601203946876 70 79 94 0.33006077805061679 5 8742 6 7905 8 8198 9 9477
6403 -0.66605688583262923 0.5005966614567734 10.969200176333302 122 123 119 0.11354934196753336 7 8734 6 7901 9 9440 10 9700
6401 -1.9999243663767072 0.41296336825465663 10.49152481853354 117 116 111 0.85669983305376041 5 8024 7 8719 6 7884 8 8172 9 8717 10 8948
6400 1.080878374185126 0.41237850365943685 9.6916917670784883 131 129 117 0.96556718710913991 7 8714 6 7880 8 8885 9 9958 10 10207 4 8014
6399 -2.4566869026196509 0.36983452152479146 10.464371363029761 122 125 118 0.32865700579874163 7 8711 6 7870 8 8166
6397 -5.1748233391444902 0.13186618447757073 9.1974699350170166 128 133 136 1.0693330706597182 7 9456 6 7841 8 8883
6396 -1.0549140859483355 0.22450758557523928 11.014753018064473 77 100 118 0.66427989960607703 5 7967 6 7815 8 8103 9 8648
6395 -0.84025653208482998 0.17665363259085967 11.011474467032205 128 132 131 0.33079323746382588 2 7444 7 8641 6 7798 8 8082
6394 -1.4079512814575952 0.16335642277177195 10.932619032848551 115 110 104 0.39497591344406302 7 8653 6 7796 8 8093 9 8634
6393 -5.1742259686845316 -0.031107970920624547 9.2280897931104668 128 137 136 0.37958478940231488 5 6891 7 8629 6 7783 8 8859
6392 -5.1620938513692751 -0.090587437526846906 8.9707305582721197 142 148 160 0.22372965246103757 5 7908 7 8618 6 7769
6391 -2.0481428042983785 -0.00048587871772667879 10.564656376293392 136 135 128 0.080734041507131454 7 8606 6 7762
6390 -1.4047580278996774 0.0057837495578359627 10.969268288974451 117 116 111 0.66310634700472848 5 7909 7 8601 6 7754 8 8830 10 9627
6388 -2.500889127734617 -0.16143412934143309 10.545441803203056 114 109 100 1.5597697956255527 7 8562 6 7723 9 8557 10 8829
6387 -0.077985247174978012 -0.15813720672342935 11.185959082255367 51 54 46 0.40938733773791003 7 8546 6 7713 8 8786 9 9314
6386 -5.1687324813067788 -0.32017618896147426 9.01664268679942 147 152 156 0.15640038466076653 5 7847 7 8552 6 7708
6385 -1.3998096994063784 -0.26390867571970311 11.01722057909461 120 115 102 0.43845073641160498 5 7838 7 8522 6 7697 8 7980 9 9319 10 9584 11 5983
6384 -1.3818200190861478 -0.33129775243010662 11.044547992158389 90 83 57 0.53939898918288065 7 8516 6 7682 9 9304
6383 -1.6162410906714164 -0.3603704546278782 10.686409821110988 130 125 111 0.3271538342407736 4 7792 6 7677
6382 -5.1533736505057028 -0.47843564993315957 9.0366768960504373 139 146 148 0.41202389326109651 7 8513 6 7672 8 7979
6381 1.6539746506619182 -0.31475167739923227 9.9049183120885917 97 90 79 0.99915790922100822 2 7299 7 8470 6 7648 8 8741
6380 0.22658891013411231 -0.39315490591929725 11.174451235167755 75 85 111 1.1035957689570963 7 8464 6 7646 8 8752 9 9259
6379 0.22658891013411231 -0.39315490591929725 11.174451235167755 75 85 111 1.1035957689570963 7 8463 6 7645 8 8751 9 9260
6378 0.11275691063483984 -0.4500582405323218 11.274826508986996 66 91 125 1.3924113636210935 7 8451 6 7630 9 9248
6377 -5.1598965844418316 -0.59462588235270086 9.3641700810774608 118 125 118 0.67270488060534561 5 6688 7 9374 6 7627
6376 -5.3406420905957601 -0.67975213510324239 9.0557328114132165 68 61 68 0.17370244983749786 7 8447 6 7614 8 7919
6375 -6.6470151390509526 -0.74444526713209214 8.9143666202524354 254 255 255 1.7341742264777877 6 7611 8 7936 9 8506 10 7832
6374 -5.1177333566265046 -0.79799649876766665 9.0578770623952458 127 129 115 0.45789282857441049 5 7720 7 8420 6 7599 8 7880 9 8466
6373 -3.2540809357578997 -0.86802041471854774 10.95640734054869 118 126 119 0.37790410407632741 4 8600 7 8412 6 7579
6372 -5.2390539097382094 -0.90297524493946868 9.7745104494479893 119 124 134 1.061234730754097 7 9349 6 7578 9 10285
6371 -4.4409014353856406 -0.94167469650793501 10.825094589040878 49 62 90 0.34454989794508112 5 7706 7 7316 6 7574
6370 -0.94151762408246242 -0.90548239793290486 11.183311680012773 116 109 105 0.3618166730792669 7 8401 6 7568 8 7838 9 9227 10 9473
6369 -5.2523479582987855 -1.0427405016645777 9.9339628200231402 79 81 78 1.3354562528595051 7 9332 6 7566 8 9234 9 10277
6368 -5.3458023221826929 -1.1208594976257766 9.7968336466587882 112 121 118 1.7491930782111296 7 8396 6 7559 9 8412 10 7726 11 3453
6367 -6.0887325146755922 -1.239946250768668 9.1346403160473173 121 123 136 0.48815381974748751 5 7668 7 7242 6 7548 8 6794
6366 -3.1597007509965858 -1.8455330842590361 11.958845398275876 48 66 92 1.0694365984664571 7 7200 6 7531 8 7786
6365 -4.1713103751828697 -2.1896496322845427 12.179454432614529 61 81 105 0.43995085783875704 7 9295 6 7512 8 7760 10 9439
6364 -1.9938495823482758 -2.086095577761049 12.171410378306433 59 64 83 1.4873387835809162 5 7637 7 9288 6 7507
6363 -5.5757764340487599 -2.3840744544854098 11.717165008950175 254 255 255 1.0565971433132924 7 7171 6 7499 8 7752 9 8313 10 8623
6362 -1.6743897113243507 -2.430630149251622 12.262813551372142 132 135 152 0.93520112314204284 7 8330 6 7489 8 7724 9 8275 10 8542
6361 -2.2105834903856838 -2.5317371967517941 12.478284392611643 222 249 253 1.1643051756688656 5 8561 7 7150 6 7487
6360 -2.3963470319901932 -2.6001073505911632 12.433643561755005 215 250 251 0.96323269481772544 2 8189 5 7607 6 7480 1 5373
6359 -2.2851226961743376 -2.9749566917100116 12.667506643564574 62 69 95 1.0906943690221633 7 8328 6 7474 8 8646
6358 0.46271275858365124 2.4676353428695781 10.662724474308449 24 36 52 2.0466387761740861 7 8181 6 7354 8 9177
6357 0.063039521642527019 2.3305707688606465 10.209485978880952 73 81 100 0.58905159582612465 5 6287 6 7349 9 9136 10 9309 11 6468
6356 -4.9688072086959982 3.2625216612697576 14.471712601158345 29 37 55 0.10357077613531379 4 7479 6 7336
6355 -4.4538190640432882 2.0699915438818879 9.8723434168218223 40 47 61 1.0473911857264844 7 9145 6 7315 8 7635
6354 -6.3846721724918654 1.7885715931223192 8.4239827454965308 159 153 144 0.86300153688464099 7 8129 6 7308 8 6456 10 7142
6353 -6.6125024082701618 1.7154138186813028 8.4091693962797702 136 123 111 0.56665060861028771 7 8113 6 7301 8 7598
6352 -6.5693618320787746 1.6719779713103431 8.4199720047964792 58 70 86 0.78215655862353051 7 8101 6 7293 10 7108
6351 -1.4188298257424481 1.9291732566919164 10.567985496200393 72 75 78 0.5597264853965348 5 7406 7 8108 6 7287 8 8561 9 9078 11 5595
6350 -4.5226916309977829 1.8707932997312464 10.179683240369361 44 47 55 0.020934391234211241 4 8420 6 7278
6349 0.097554029011232446 1.8953944318637947 10.765625458754903 80 89 88 0.83318750971665134 5 7390 6 7266 8 7593 9 9060
6348 -2.4254876169901554 1.8159856392749532 10.242389373891378 56 53 64 0.37522595925555557 7 8088 6 7261 9 9061 10 9244 11 5593
6347 -5.2594616600510058 1.7113319539609235 9.5357715146990518 75 86 87 1.9573993605538247 7 9090 6 7259 8 9103 9 10168 10 10777 11 7451
6346 -5.1762556044015309 1.5905415336149633 8.9085769636367367 91 100 105 1.9332383536928226 7 9086 6 7258 8 9099 9 10167 10 10776
6345 -2.4036867924789291 1.7674779048766103 10.255904818266739 93 115 130 0.5490755713237625 7 8073 6 7250 8 8542 9 9050
6344 -5.6919278725125615 1.5319188903290162 8.5757005282825478 126 127 121 1.3090115875570238 7 8056 6 7248 8 7558 9 8101 10 8314
6343 -5.1697608919925919 1.5119359226836684 8.9117891177786834 95 100 104 0.49638567267807598 7 9065 6 7236 8 8513
6342 -1.9155442251365264 1.5829177530565957 10.230744631437343 73 78 86 0.839296666354298 2 8935 5 7332 6 7199 1 6829
6341 1.2274129366560793 1.261879999161178 9.5000210275514885 88 82 72 0.69139190991407584 7 7952 6 7132 8 8430 9 8928
6340 -3.6355085286993694 1.3547479550349428 10.405197871342601 107 110 115 0.9539073818693552 7 7943 6 7129 9 7995 10 8228
6339 -5.2692772776605539 1.1365236275078818 8.7263090973094748 135 137 132 0.23159389496740759 4 8269 7 7934 6 7123
6338 -0.57389124762185717 1.3668418115283527 10.79398232389399 103 101 104 0.52812688740378377 7 7933 6 7109 9 8932
6336 -3.7756769704089432 1.2398255270853307 10.408582971579484 70 64 74 0.50945238522974068 4 7182 6 7095 1 4926
6335 -2.0039455584443693 3.6844267106185895 29.670760685698227 105 109 108 3.1902408428161841 7 8934 6 7092
6334 0.55110650492113811 1.2506646319957864 10.923358992869026 99 107 114 1.0626874116312746 7 7891 6 7077 8 8384
6333 -0.93922212997031851 1.2133196834197957 10.772976982465352 109 111 110 0.85246211761907476 4 7166 5 7205 7 7888 6 7076 11 5424
6332 -5.6258080948833955 0.96287738384873667 8.7114025815407583 142 137 133 0.34723043891140809 7 7879 6 7073 8 7390
6331 -5.2611405882325721 1.0688279686023852 9.6638334351791535 104 110 108 0.56318216012697542 7 8910 6 7071 8 9012 9 10086
6330 0.42585987421578109 1.1918784977913977 10.916578791985565 97 93 100 0.31485245457126904 7 8904 6 7062 8 8369
6329 1.6881111171884291 1.018712324846873 9.7122410965796426 27 30 37 0.43249466415104493 4 5857 6 7047 8 8346
6328 -5.2766116558456027 1.0286850794432729 10.262695637529838 51 55 58 0.75702602016735931 7 7863 6 7044 9 7931 11 4067
6327 -5.1736923125294547 0.86724746245690154 9.0535149207141217 110 110 105 0.45875002852487912 7 8872 6 7038 8 8978
6325 -5.3137310674575469 0.79679390675334349 8.7853249366164547 81 71 79 0.10416756324912528 7 7831 6 7020 8 7339
6324 -1.4580237716703035 0.86712410292066222 10.783749844413324 97 93 78 0.49463034440788256 7 8828 6 6986 8 8295 9 8820
6323 -1.3908992959159174 0.85951286645587344 10.787766387421579 104 100 88 0.28719608116674622 5 7105 7 7793 6 6983 8 8288 9 8814
6322 -3.4641467345791943 0.70648150383203856 10.513259923748754 112 121 130 0.17034602986070882 3 8955 6 6946 1 5856
6321 -5.2731427397029433 0.51807904345980593 8.8550347745814246 134 140 137 0.42984084392096522 7 7746 6 6936 8 7260 9 7836 10 8086
6320 -3.4990262933473453 0.67100840076799495 10.689891112264602 52 69 90 0.42499509923685402 7 7747 6 6933 8 7264
6319 -2.0978078682908299 0.64420426431555633 10.426721926328387 44 63 86 0.61807111155682826 7 7738 6 6927 9 7803
6318 -1.4920089470271216 0.65392401910897724 10.495240906921268 111 129 133 0.868509584737163 5 7061 7 7732 6 6925 8 7234 9 7791 10 8045 11 5295
6317 1.2264525894172784 0.61885942069401834 9.6768954385995123 87 68 57 0.71969579772812431 7 7724 6 6917 8 8209 9 8727 11 6735 5 8085
6316 -6.6258538316285174 0.45272274468566243 8.7264577664858471 108 113 116 0.63692009324245547 4 6971 5 8070 6 6911
6315 -5.2745902828351952 0.55184048305048916 10.358633640261734 56 55 61 0.5823775898385215 7 7719 6 6904 10 8082 11 3926
6314 -6.1708887454204815 0.42973767777759619 8.7542446402017156 123 121 122 0.44617721719556269 7 7717 6 6902 8 7226
6313 1.0690104502166908 0.52301579519816555 9.6550786547101506 77 81 80 0.54179421620894874 7 7691 6 6882 8 7177 9 8694 10 8907 11 6060
6312 -5.1696784222670384 0.34131881043279144 9.0622955221079753 114 123 127 0.30044740238422191 5 6998 7 7679 6 6866
6311 -5.2616506582278548 0.3359607174130691 9.8232329901778819 108 112 113 0.61662538606752537 7 7668 6 6855 8 8188 9 9471
6310 -5.223786606559333 0.27791069799975199 9.5883424862351578 110 115 119 1.6338903348257978 5 3910 7 7655 6 6846 8 8898
6308 -5.2589015269913277 0.2555119494158965 9.8298473370894772 117 121 124 1.6550456674464928 5 5654 7 9459 6 6838 8 8894 9 9999 10 10658 11 7672
6307 -3.6366463962189473 0.31619967491717449 10.625675411413621 128 132 135 0.49037365254701798 7 7641 6 6837 8 7148
6306 -5.1773479106191225 0.20469730877884193 9.200196473502146 123 126 131 0.86137791851150747 7 8703 6 6828 8 8165 9 9993 10 10250
6305 -1.463102939135273 0.30703414418440811 10.902329458866484 74 70 67 0.41540096837224949 7 7620 6 6813 8 7119 10 7943 9 7679 11 3672
6304 -5.2269603146130832 0.14495896680173473 9.6195800388581993 113 116 118 0.31171746029021613 7 8682 6 6807 8 8884
6303 -0.19093763274622 0.25145897116359195 11.068147549039489 123 122 115 1.0163050562466247 5 6931 6 6798 8 8100 9 8629 11 6040
6302 -0.56892734642960985 0.14880807987142339 11.049271687418855 128 128 121 1.1064515364021421 7 7572 6 6771 8 7061 9 8607
6301 -0.56662241799543089 0.082921637813674093 11.057790193598027 130 127 118 0.93921884862438199 7 7553 6 6749 8 8060 9 8586
6300 -1.3134166350709735 0.056257083167671917 10.962795099048471 120 123 112 0.94381920648995643 7 7542 6 6746 8 8064 9 8602 11 5108
6299 -3.6321771089683761 -0.0074960223158304223 10.685600582998354 127 129 124 0.52648320543168425 7 7556 6 6745 8 7065 9 7630 10 7910 11 3701
6298 -4.0451411659728018 -0.034072300429629013 10.620550735610259 69 79 85 0.20211142011264993 5 6869 7 7551 6 6736
6297 -1.4664447694781479 0.013226777395059758 10.97179470335996 83 75 72 0.27331138095230995 7 7533 6 6731 8 7025
6296 -1.4639391433827456 0.012412541719053566 10.964091261653049 83 75 72 0.50373326672799923 7 7532 6 6730 8 7024 9 8589 10 8840 11 5106
6295 -6.2620494004016516 -0.17580480949727975 8.8220140292138467 128 137 133 0.57446018987706149 7 7534 6 6723
6294 -6.4955723736372528 -0.1980636526536397 8.8217016489235967 131 145 150 0.74527133287033709 7 7528 6 6707 8 7048 9 7656 10 7946
6293 -2.0864943423960649 -0.087889670889692448 10.593383914798155 128 129 128 0.29518514328586404 5 6852 6 6697 8 7008
6291 1.6926560955382628 -0.039128258088541118 9.9416075163439661 37 57 88 0.36750761727725739 7 7491 6 6686 10 9514
6290 -2.0507264214417589 -0.15863913923301384 10.615893173329809 134 134 126 0.42052055681285505 7 7490 6 6678 8 6983 9 8552
6289 -1.4396433250013088 -0.14438620901479549 10.963699472775737 118 110 97 0.55766763783107287 7 7489 6 6673 8 8016 9 8537 10 8792 11 6010
6288 -5.2966154289207408 -0.2509354953953824 10.501980533248405 120 133 126 0.5227033648063858 7 8560 6 6671 8 8035 9 8608 10 8868 11 5226
6287 -6.0829491305123184 -0.28894735926517984 8.9136436868621125 134 145 138 0.46778655177020678 4 6697 7 7502 6 6670 8 7014
6286 -4.6302171067094395 -0.24122207868103132 10.586156631465727 121 125 121 0.75203133721609428 7 7493 6 6668 9 7593 10 7884 11 3686
6285 -6.6447342480083273 -0.32262260979180457 8.8468587040207805 252 254 253 0.25416128297602969 5 6786 6 6665 8 7011
6284 2.331060498556643 -0.10335561461613796 9.9986447147630422 127 139 139 1.2808111232610215 7 8540 6 6659 8 7955
6283 2.331060498556643 -0.10335561461613796 9.9986447147630422 127 139 139 1.2808111232610215 7 8539 6 6658 8 7954
6282 -6.499325491486359 -0.35807912413710574 8.8560201873820699 128 138 145 0.70780176260548777 3 8683 6 6643 8 7005 9 7610
6281 0.52519997010915098 -0.17804703374841491 11.191359825426069 107 114 113 0.83123030462648195 7 7445 6 6633 8 6930
6280 -3.9017749996037177 -0.33404001045324117 10.711082899893889 123 126 117 0.45036795370105487 7 7446 6 6623 8 6967 5 6770
6279 -5.6941773858316846 -0.43203127665715846 8.9715446174619764 137 144 144 0.46591261140441426 5 6745 6 6615 8 6964
6278 -6.5934845736295298 -0.48079678392402947 8.8772146108915049 111 122 129 0.19757137808206895 7 7435 6 6611 9 7579
6277 -5.2556523789196179 -0.47617124745106121 9.0328708116675411 142 150 148 0.56275456337630458 7 7427 6 6603 8 6949
6276 0.33401597600337585 -0.33610299610505978 11.169968429200074 104 94 90 0.15892102199235442 7 7407 6 6601 9 8438
6275 0.12543110255529144 -0.34321156248100892 11.138128695860999 111 113 105 0.19877289270126844 4 6680 6 6598 8 7926
6274 -1.2908496932447582 -0.39309058890219317 10.974231897239157 115 113 101 0.920562979488035 5 7797 7 8493 6 6585 8 7950 9 8472 10 9557
6273 -1.385294579434067 -0.39619453453490072 10.969646542877495 130 124 110 0.61738957543545236 5 6736 7 8492 6 6576 8 7951 9 8475 10 9560 11 6670
6272 1.8970102867114094 -0.30905672541266621 9.9686587704026017 110 94 79 0.64928181969945797 4 5335 7 7383 6 6574 1 3007
6271 -1.2380118607383519 -0.43215666915594275 10.987327433438818 82 97 116 0.63989544908561813 5 6721 6 6568 8 6884 9 7454
6270 -0.25848219928155924 -0.40708207495817039 11.110994886687472 85 92 111 0.6211155041630102 5 6728 6 6566 8 7911 9 8435 10 9512
6269 -2.3838928855247552 -0.54572738946162036 10.663853043818317 77 96 111 1.9550687445604971 5 6696 8 7910 7 7367 9 7453 10 7758
6268 -5.1566433880876135 -0.65168788449766868 9.210363769565161 132 136 137 0.79197418574476908 5 5381 7 7363 6 6541
6267 -5.3860825922631133 -0.79494100932178546 10.752759644885698 36 43 67 0.84360760030746029 7 8435 6 6525 8 7902 9 8486
6266 -6.0376640588243369 -0.77790672256068827 8.951541015886411 105 100 96 0.31416904326926975 5 7724 6 6522 8 5714 9 6301
6265 -6.3186976114464972 -0.78749203481465058 8.9058642801440087 110 105 109 0.77531821372200604 5 6654 7 5945 6 6520 8 5717 9 6313
6264 -5.3393001630262829 -0.80756493926499751 10.791665982122568 74 89 118 0.37036244127395562 5 7727 7 7345 6 6516 8 6872
6263 -5.0859710468370514 -0.75491679584795723 9.0802774548722081 100 92 83 0.50470554100101406 7 8431 6 6511 8 7895 9 8478 10 8756
6262 2.2388498742202252 -0.62425743512738319 9.9854222297099859 93 104 123 0.44417941620778645 7 7303 6 6495 8 6764 9 8338
6261 2.3275121649833324 -0.63202450228568219 10.065465297472505 75 91 118 0.41684663851058873 7 7292 6 6491 8 7816
6260 0.37003796657420152 -0.96320593160274126 11.375928815926505 114 114 107 0.51269435767221316 7 7256 6 6447 8 6749 9 7340
6259 -1.1237933461420757 -1.0207780327600262 11.210385205170139 127 121 109 0.19672404960454939 5 6609 6 6446 8 6765 9 8360
6258 -4.5826533813820092 -1.237139747772952 11.286994378062532 41 60 77 0.24835925892314858 5 6581 7 5815 6 6437
6257 1.3770572628096323 -0.98089505359582396 10.103093584563069 78 86 94 1.6247555799094675 5 6592 6 6431
6256 -2.5191457999293618 -1.1829483395451617 10.772187574059718 127 125 113 0.11299048654891908 7 7236 6 6429
6255 -2.1546395815676296 -1.2032550646482714 10.806427821284357 142 138 129 0.48804518050491891 7 7229 6 6426 8 6740 9 7353 10 7646
6254 -5.8812165917421613 -1.4710793312409582 9.1654238137410147 127 128 132 0.22546089169406938 4 6477 7 5776 6 6409
6253 -5.49226337622519 -1.7033333676688249 11.618625334200789 110 121 143 0.29081065913905996 5 6546 7 7215 6 6402
6252 -5.9781486229564322 -1.8897910440325933 11.440032535034241 147 151 150 0.67677905070591737 7 8368 6 6395 8 7800 9 9217 10 9467 11 6636
6251 -5.9793803194539681 -1.8894757520053616 11.442031276490923 147 151 150 0.64714092109710908 7 8369 6 6394 8 7799 9 9218 11 6637
6250 -1.7124598953935677 -1.7614760438393984 12.114390542971673 107 105 108 0.39309272724563832 7 7201 6 6392 8 7779 9 8314 10 8603
6249 -6.259061423326763 -2.0772892593424732 12.511938783718 117 118 167 0.25881861425248048 5 6537 7 7202 6 6391
6248 -6.0647692981297565 -2.0893558431529846 11.38198744563576 59 72 98 0.46571984123068583 7 8362 6 6381 8 7789 9 8337
6247 -3.0189438586782784 -2.0269640351172336 11.98770966167962 125 141 150 0.33393820903125399 5 6526 7 7191 6 6375 8 6689 9 7292 10 7573
6246 -1.8546718978176444 -2.1208562888088038 12.433192938204407 40 60 71 0.47155266819151254 7 7175 6 6363 8 6672
6245 -5.3995954219824451 -2.2696410160144498 11.821727848433024 105 106 130 1.1408832104263926 7 8346 6 6362 8 7762
6244 -6.0570089736916835 -2.2923779019197581 11.461239908053804 149 162 171 0.43918589802408714 7 7180 6 6359 8 6693 9 7309 11 3122
6243 -6.021490350177527 -2.3347380375805473 11.452331511648275 119 120 134 0.54056976204019425 5 6506 6 6354 9 7303
6241 -0.02243313303987482 -2.2673185216189422 12.78833746267145 85 91 122 0.77350966281645905 7 7156 6 6345 8 6643 9 8273
6240 -3.0257083736140782 -2.3449229227182826 12.084573875650376 154 158 166 0.26799410762638803 7 7160 6 6343 8 6655
6239 -3.0541503539318122 -2.4461184361565094 12.100013154331979 133 147 161 0.51568258427888369 7 7153 6 6341 8 6649 9 7263 10 7524
6238 -0.6332988374126497 2.3783419011387488 10.09221267035355 30 37 56 0.92775413621961855 5 6299 6 6170 8 7686 9 8209 11 5654
6237 -3.6838852473509585 2.2065967248044029 9.7704492942107084 71 77 99 0.39741731131779917 7 6816 6 6149 8 6543 9 7059
6236 -4.1707316355855522 2.2477702766543519 10.209364490052062 25 32 50 0.37499981061338855 7 5063 6 6141
6235 -7.8000668073226445 2.1157522345558402 8.9700967368170179 58 61 102 1.3937227609991039 7 9152 6 6139 9 9749
6234 -4.4284992666255967 2.059422396268666 9.9251594228956392 65 75 91 1.2389004332134874 5 6243 7 8135 6 6123 8 8584 9 9099 10 9964
6233 -4.9558436571781845 2.0669887993060434 10.148183179109662 49 58 65 1.662948073819712 4 6208 5 6231 6 6111
6232 -5.3039951410218258 2.033275721717156 9.991413082312814 40 55 60 0.78946328328650295 7 6755 6 6104 8 7625 9 8149 10 9275
6231 -1.3549591028668955 1.9939259472425837 10.555747690380743 82 93 99 0.95398057581782436 7 6745 6 6087 8 6467 10 8364
6230 -3.8220503362394442 1.9317959180086965 10.260222290880062 90 108 120 1.4365952642693507 7 6724 6 6074 9 8135 10 8353
6228 -1.4221551154316767 1.8826064586493532 10.580092729584763 54 54 56 0.59429502155695779 5 6170 7 6706 6 6057 9 6963 8 4900
6227 1.9489203695249773 1.5972033978897799 9.5791206431982427 109 108 106 0.54513458476962884 2 4897 3 4902 6 6025
6226 -0.062451168437954729 1.6566760444863413 10.800309608438324 59 54 61 0.65968869998509783 5 6089 6 5982 8 7535 7 8014 9 8048
6225 -0.67767847618896648 1.5828125614941393 10.736693961822366 59 61 66 0.268001376292055 5 4434 6 5969 8 6367
6224 1.1861168185281386 1.3528602889981558 9.512428077512407 115 113 103 0.59992409845300154 7 6615 6 5953 9 6815 10 5137
6222 -4.4530485600567671 1.452180805512268 10.291355845041052 102 102 103 0.372406784181678 7 6602 6 5949 8 6338
6221 1.9483669281245881 1.3642075221678394 9.6216429602672608 59 58 54 0.70709619534670665 5 6045 6 5947 8 7485 9 8956 10 9859 11 6267
6219 1.0888012185214049 1.2550690227193311 9.5272651343246313 118 117 114 0.36881120651489185 5 6009 6 5916 8 7452 11 6263
6218 1.3294420679330299 1.2605601166038933 9.5683543820130517 76 67 68 0.51984365758371176 7 6584 6 5915 8 6313 9 7968 10 9123 11 5408
6217 -0.23341296075772111 1.3867378196833517 10.832517767626287 51 71 91 1.2673460205064608 7 6570 6 5901 8 6306 9 7976
6216 -4.4851327942147217 1.3124143074263739 10.309570342286287 67 65 76 0.2992728737444052 7 6562 6 5899 8 7439 1 4953
6214 2.0480985123884743 1.1972064189104874 9.6692542679604401 114 117 110 0.91339253028339606 5 5966 6 5877 8 7414 9 7924 10 9094
6213 -0.71527791272173746 1.3027227585398988 10.78718883030743 55 50 54 1.0931316568330243 3 6637 5 5957 6 5874 8 7417
6212 -5.2982791464097403 0.99138452998907611 8.732203202200024 95 82 92 0.30665302817057188 7 6525 6 5858 8 6254
6211 -4.4492058506315209 1.1280492512670004 10.348415378466118 103 112 117 0.27693190147000168 2 7757 7 6509 6 5843 8 6247
6210 -0.71547427703174271 1.1865119854893282 10.823555356733021 67 64 66 0.17937299973048002 3 6599 6 5840 1 3457
6209 1.090476002938676 1.0483898512576566 9.5673705137300242 115 119 115 0.67038913371063569 5 5922 7 6506 6 5834 8 7379 9 7894
6208 -1.907999732000218 1.0913486752002284 10.34633851028155 90 91 95 0.36199506627224043 7 4628 6 5831 8 4585
6207 -2.5957561839546566 0.99420260772799318 10.28426651619905 89 91 86 0.73620014182476345 5 5895 6 5809 8 7365 9 8868 10 9082
6206 -1.3885345605090975 1.0538304090499708 10.760020214033359 99 99 91 0.759104954683955 7 6481 6 5807 9 7893 10 9072 11 5399
6205 -3.9275909952731736 0.98773608378116073 10.447876862760404 114 124 133 0.84636393505363139 7 6467 6 5798 8 6215 9 6734 11 4010
6204 1.0913109443813938 0.92648865590621032 9.5897662162926789 124 121 112 0.78786618888252058 5 5890 6 5796 11 6186
6203 -5.9258673340059813 0.79955497039402634 8.7697070381376747 27 33 68 0.77115582122924431 4 5808 6 5793 8 4519 7 1598 9 2243 4 1562 1 4789
6202 -5.2514277373058444 0.79171168976010908 9.5436158715632438 99 103 94 0.90334790563862721 7 7808 6 5767 8 7327 9 7888
6201 -5.2249191358491203 0.7543270600071228 9.6770840301449041 108 110 112 0.85888579253379638 5 5829 6 5751 8 7310 9 8845 10 9060 11 5444
6200 1.6208347214365209 0.81119450904997681 9.667891101396993 83 81 57 0.21010761636839734 7 6416 6 5747 8 6108
6199 1.3622980048530999 0.80493109375927596 9.6637588864389166 87 71 55 0.40523735592700783 4 4012 6 5746 9 7806 10 8995 1 1448
6198 0.91960317289757643 0.7908017645679144 9.6167354936581333 69 72 63 0.32577685600241663 5 5834 7 6414 6 5745
6197 -1.537446779238163 0.71445278013186797 10.414012952882384 117 116 111 0.62745319631182073 7 6384 6 5713 8 6081 9 7818 10 8063
6196 -5.1608847493652164 0.56824828799782201 9.0738365186883829 108 111 115 0.81626811725872772 7 6377 6 5712 8 6097 9 6660 10 6832 11 3979
6195 -1.9166061216155974 0.69438916129415917 10.310316437633389 112 113 109 0.25287575109657195 7 6379 6 5707 8 6079
